# .PCD v0.7 - Point Cloud Data file format
VERSION 0.7
FIELDS x y z label
SIZE 4 4 4 4
TYPE F F F U
COUNT 1 1 1 1
WIDTH 1341
HEIGHT 1
VIEWPOINT 0 0 0 1 0 0 0
POINTS 1341
DATA ascii
0.02528034 0.12534331 1.0348825 17
0.028435346 0.13363513 1.0334445 17
0.034124523 0.13598156 1.0399554 17
0.028705308 0.12333961 1.0444287 17
0.034940176 0.12476035 1.0480456 17
0.038000003 0.13100001 1.0500001 17
0.04026667 0.11778 1.057 17
0.041906349 0.12554651 1.0560001 17
0.044993408 0.13481268 1.0571563 17
0.023714967 0.14460666 1.0132145 17
0.027296348 0.15332747 1.0115002 17
0.028376453 0.14488919 1.024182 17
0.031684574 0.147856 1.0268 17
0.033953145 0.15355924 1.0244001 17
0.032071292 0.15675266 1.0160002 17
0.033058096 0.16454835 1.013375 17
0.037855051 0.16565658 1.0244 17
0.041119996 0.16741714 1.028 17
0.035966802 0.1449707 1.0351906 17
0.038665712 0.14078286 1.041 17
0.038918272 0.15866378 1.0333409 17
0.041520007 0.15355812 1.0380001 17
0.042393971 0.14300478 1.046 17
0.046120692 0.14437023 1.0527273 17
0.048457146 0.14234287 1.0600001 17
0.048 0.15000001 1.0500001 17
0.051688518 0.15085985 1.0556471 17
0.042977337 0.16539812 1.0350001 17
0.047355719 0.16442859 1.0439999 17
0.045749478 0.15555067 1.044158 17
0.052312858 0.16789715 1.0462501 17
0.054765038 0.16442558 1.053643 17
0.036390916 0.17495884 1.0136925 17
0.038933337 0.17325334 1.0220001 17
0.042485714 0.1754708 1.0255001 17
0.046795718 0.1755105 1.0343335 17
0.050874338 0.17373237 1.0425 17
0.044875942 0.11507858 1.0623913 17
0.0523149 0.1120853 1.0712273 17
0.051762223 0.11772953 1.0656668 17
0.046603963 0.12443078 1.060231 17
0.054257832 0.12545168 1.0638638 17
0.054763228 0.13505736 1.0631922 17
0.055313289 0.14508532 1.0617826 17
0.057975516 0.15460138 1.0600001 17
0.058552384 0.16455239 1.0600001 17
0.057104956 0.1743122 1.0519001 17
0.060802668 0.17677069 1.057 17
0.058425397 0.120927 1.0700001 17
0.061542857 0.10872572 1.077 17
0.062454607 0.11533586 1.077 17
0.060971431 0.13616954 1.0670002 17
0.064748481 0.1250986 1.0749999 17
0.062535651 0.14509007 1.0664288 17
0.06372419 0.15524133 1.0654 17
0.063547902 0.16511162 1.0640001 17
0.06463857 0.17425667 1.0645627 17
-0.011351112 0.21388826 0.94099998 18
-0.0089333337 0.22690666 0.93800008 18
-0.0071054776 0.20608026 0.94749999 18
-0.0058040209 0.21545963 0.94614792 18
-0.0018114287 0.21193716 0.95100009 18
0.0040465468 0.20468786 0.95628119 18
0.0041019642 0.21523432 0.95534384 18
-0.0049920985 0.22505426 0.94440734 18
0.00072228577 0.2277844 0.94760001 18
0.0052160639 0.22454663 0.95430022 18
0.0064862589 0.23451084 0.95300013 18
0.0091619054 0.20522667 0.96200007 18
0.0091619063 0.21255621 0.96200007 18
0.011640714 0.22641668 0.95862508 18
0.013538703 0.20528252 0.96500015 18
0.013622253 0.21555641 0.96500027 18
0.019917727 0.20493954 0.97463906 18
0.02047625 0.21510178 0.97431254 18
0.014824899 0.22416192 0.96407145 18
0.018495239 0.22471333 0.97100008 18
0.023524139 0.22541822 0.97595674 18
0.018476192 0.23372382 0.97000003 18
-0.0044005201 0.23512928 0.94231826 18
-0.004034 0.24553294 0.94195014 18
0.0012892518 0.23561852 0.94685721 18
0.0023066672 0.24534628 0.94711113 18
0.007490952 0.24485987 0.95312518 18
-0.004892468 0.25531974 0.9424547 18
-0.0054556774 0.26472169 0.94346166 18
0.002437524 0.25450787 0.94729996 18
0.0011490911 0.26445508 0.94800007 18
0.0061438554 0.2656635 0.95342863 18
0.01185619 0.23508878 0.95749992 18
0.012380544 0.24483541 0.95771438 18
0.016775785 0.24440533 0.96321428 18
0.0080166673 0.25572956 0.95275021 18
0.011940779 0.25487155 0.95763636 18
0.01281881 0.26466727 0.96104175 18
0.015884355 0.23507418 0.96471435 18
0.020260956 0.24681525 0.96700013 18
0.018455599 0.25504434 0.96568751 18
0.017684355 0.26632109 0.97000015 18
0.023787754 0.26479909 0.97476208 18
0.026470857 0.20462821 0.98320013 18
0.027120003 0.21508114 0.98190004 18
0.028902858 0.22424416 0.9818182 18
0.029897144 0.23263715 0.98100007 18
0.024667876 0.23509865 0.97596693 18
0.024774466 0.24457599 0.97522229 18
0.029897144 0.24571714 0.98100007 18
0.03409303 0.23554847 0.98557913 18
0.03477674 0.24467197 0.98531592 18
0.03968 0.24563812 0.99200004 18
0.02498694 0.25467211 0.97323829 18
0.029897144 0.25506002 0.98100007 18
0.029122451 0.26583678 0.98185718 18
0.034652062 0.25463036 0.98709542 18
0.039385084 0.25584605 0.99250007 18
0.034651332 0.26540646 0.98747385 18
0.03920871 0.26417908 0.99371439 18
-0.0052037425 0.27490535 0.94528562 18
0.00072228577 0.27230173 0.94800007 18
0.0053140572 0.27563033 0.95428008 18
0.014217544 0.27528852 0.96452636 18
0.020735873 0.27445304 0.97466677 18
0.028251434 0.27501544 0.98220009 18
0.034060951 0.27444813 0.98790008 18
0.039157283 0.27545062 0.99242866 18
0.041695245 0.27291432 0.99500006 18
0.030140953 0.1996838 0.98900002 19
0.034904882 0.18550061 1.0040001 19
0.037873015 0.18326256 1.011 19
0.036589451 0.19439648 1.0028464 19
0.034879949 0.19901267 0.9988358 19
0.041760322 0.18207917 1.0157502 19
0.047714289 0.18582939 1.0254287 19
0.040250003 0.19645621 1.00625 19
0.044534385 0.19482248 1.0142001 19
0.048666667 0.19369334 1.0220001 19
0.051496193 0.19596954 1.0250001 19
0.05007381 0.18475097 1.036 19
0.054633062 0.18474981 1.0429287 19
0.055002086 0.19545905 1.0346365 19
0.031494375 0.20607723 0.9884547 19
0.0352083 0.20486519 0.99521428 19
0.032616779 0.2152227 0.98785728 19
0.03864513 0.21493834 0.99523085 19
0.036392912 0.22519141 0.99080884 19
0.038936194 0.23455961 0.99230003 19
0.042274289 0.23602669 0.99585724 19
0.041828576 0.20653032 1.0046431 19
0.043362997 0.21535824 1.0005715 19
0.04812381 0.21366744 1.0106 19
0.045907501 0.20373724 1.0120625 19
0.051391326 0.20620529 1.016 19
0.053252522 0.20435974 1.0245717 19
0.052241165 0.21517564 1.0136667 19
0.04357715 0.2247335 1.0004773 19
0.045910213 0.23486204 1.0042144 19
0.048095237 0.22941428 1.01 19
0.053417228 0.22550087 1.0146366 19
0.044772048 0.24484909 0.99953318 19
0.054158684 0.23501922 1.0139233 19
0.054032683 0.24423592 1.0130002 19
0.044389524 0.25459492 0.99950004 19
0.043822482 0.26495749 1.0001502 19
0.053156663 0.25504506 1.0128502 19
0.054357041 0.26479119 1.0150003 19
0.045509346 0.27481577 1.0038002 19
0.048095237 0.27895236 1.01 19
0.054063596 0.27481413 1.0135771 19
0.051715817 0.28382778 1.013 19
0.054560006 0.28644192 1.0230001 19
0.058000006 0.18300003 1.0500001 19
0.061722383 0.1851586 1.05375 19
0.057191748 0.19387111 1.0433334 19
0.062877864 0.19463168 1.0520626 19
0.066002101 0.18443392 1.0629001 19
0.069295242 0.18546668 1.0700001 19
0.067915775 0.19474204 1.0625557 19
0.071714021 0.19597961 1.067 19
0.074675344 0.1936055 1.0724446 19
0.057333719 0.21684992 1.0238001 19
0.060495824 0.2231254 1.0263168 19
0.057378758 0.20422138 1.033231 19
0.06129143 0.20957717 1.0380001 19
0.059647538 0.21396141 1.0339572 19
0.062080003 0.20652914 1.0446 19
0.068068072 0.20672712 1.0545883 19
0.065513812 0.21481572 1.0475001 19
0.070764087 0.21543947 1.0528572 19
0.066345803 0.22567862 1.0327274 19
0.070902862 0.22846477 1.034 19
0.068562664 0.22216129 1.0486668 19
0.062291685 0.2349482 1.0262002 19
0.059936404 0.24633822 1.0241667 19
0.060128417 0.25487983 1.0237501 19
0.06250459 0.26364765 1.0225457 19
0.067501821 0.23571947 1.0312729 19
0.06639009 0.24526238 1.0312002 19
0.065806776 0.25535217 1.0330001 19
0.061958782 0.27084315 1.0187857 19
0.059860002 0.27642667 1.0220001 19
0.072551429 0.20546985 1.0654168 19
0.076280005 0.20465842 1.0726668 19
0.073879994 0.21352138 1.0647144 19
0.077144131 0.21477747 1.0705001 19
0.078316197 0.20300001 1.082 19
0.076500006 0.22236191 1.0710001 19
-0.05341905 0.0082761906 1.1850002 20
-0.04429993 0.0069450554 1.1856155 20
-0.02790788 0.0078851953 1.1677272 20
-0.034720954 0.0083995238 1.1760001 20
-0.035305284 0.0043063201 1.1853638 20
-0.025178097 0.00074984133 1.1836668 20
-0.024642667 0.0031356195 1.1762002 20
-0.01521143 0.0068091159 1.1647143 20
-0.025965277 0.033635311 1.1144618 20
-0.025277304 0.029192701 1.1215001 20
-0.014893335 0.032976188 1.117 20
-0.064933337 0.02357067 1.1674001 20
-0.065236196 0.020245716 1.1810001 20
-0.062661424 0.015800953 1.1855001 20
-0.060378097 0.020684287 1.174 20
-0.05210226 0.020979881 1.16725 20
-0.043374289 0.017347431 1.1677999 20
-0.047381908 0.022038097 1.1570001 20
-0.051563811 0.017935239 1.177 20
-0.052483495 0.012838542 1.1824669 20
-0.045758098 0.01342026 1.1744547 20
-0.03438447 0.025742713 1.1336924 20
-0.024840001 0.023754923 1.1340001 20
-0.035190858 0.018473906 1.1546 20
-0.034311272 0.021057144 1.1436667 20
-0.024644764 0.017879238 1.1450001 20
-0.031056192 0.028914286 1.1245 20
-0.013331169 0.021247793 1.1363636 20
-0.015649352 0.017427534 1.1439091 20
-0.015584286 0.012647778 1.1550001 20
-0.01529932 0.027995924 1.1245002 20
-0.035048842 0.01395211 1.1655716 20
-0.026434969 0.012504763 1.1587143 20
-0.0055095237 0.0088152383 1.1570001 20
-0.0050984765 0.0048742862 1.1642002 20
0.0044076196 0.0088152383 1.1570001 20
0.0046740854 0.0034993486 1.1656315 20
-0.0053140484 0.032924764 1.11525 20
-0.0053285719 0.029840002 1.1190001 20
0.0047324547 0.033610702 1.1136155 20
0.0042628576 0.029840002 1.1190001 20
0.015227303 0.03469947 1.1155 20
0.011722857 0.029840002 1.1190001 20
-0.0054060319 0.021615557 1.1351666 20
0.0034827844 0.023539927 1.1315385 20
0.0043352381 0.019508572 1.138 20
-0.0054523814 0.015261589 1.1450001 20
-0.0054904763 0.010980952 1.153 20
0.0044879555 0.014740058 1.1442941 20
0.0036603175 0.010980952 1.1530001 20
-0.0053576194 0.027844762 1.1245 20
0.0058133346 0.026920276 1.1242858 20
0.015136763 0.021616001 1.1352 20
0.015270096 0.014172763 1.1452001 20
0.015796905 0.028646907 1.1245 20
-0.063626669 0.013634287 1.1930001 20
-0.021120002 -0.021120002 1.2320001 21
-0.015957335 -0.021589337 1.2320002 21
-0.014228573 -0.023714285 1.2450001 21
-0.015047144 -0.01562524 1.2152501 21
-0.020560002 -0.018205715 1.2333335 21
-0.014801906 -0.017918099 1.2270001 21
-0.0093866671 -0.018773334 1.2320001 21
-0.0056457147 -0.023058288 1.2352002 21
0.0070038103 -0.021790478 1.2256669 21
0.0047009527 -0.024211809 1.2340001 21
-0.0056746672 -0.02554743 1.2418002 21
0.0076995241 -0.031396668 1.2440001 21
0.0023809522 -0.030952381 1.25 21
0.0027590478 -0.027608257 1.2423334 21
0.015869714 -0.023808382 1.2254002 21
0.014762449 -0.027180413 1.2331431 21
0.018029209 -0.031357463 1.2346668 21
0.021000002 -0.024501907 1.2250001 21
0.013726857 -0.032190479 1.2426001 21
-0.0046204086 -0.01583565 1.2122859 21
0.0049201059 -0.015863283 1.2086668 21
0.014329525 -0.016335715 1.2035002 21
0.01596 -0.012702857 1.197 21
0.013257144 -0.019599047 1.2105 21
0.00928762 -0.020897144 1.2190001 21
-0.0046704765 -0.019850478 1.2260001 21
0.025423098 -0.021671431 1.2133751 21
0.025224762 -0.017201906 1.2040001 21
0.029961905 -0.018438095 1.21 21
-0.095253341 0.063311175 1.0914546 22
-0.082161911 0.058240004 1.092 22
-0.073933132 0.058547515 1.0848889 22
-0.085857898 0.06223876 1.08745 22
-0.093432941 0.056118645 1.1148572 22
-0.091979057 0.052406669 1.123 22
-0.10323162 0.065141335 1.0927 22
-0.09787143 0.061038099 1.105 22
-0.094922289 0.059061337 1.1073999 22
-0.084154025 0.056802731 1.1045713 22
-0.075757146 0.056294918 1.0946667 22
-0.074536718 0.052803602 1.104 22
-0.080994293 0.049022861 1.1190001 22
-0.085571148 0.053335536 1.1166925 22
-0.077310488 0.050834291 1.1120001 22
-0.073987938 0.047510266 1.1168889 22
-0.083572 0.040646099 1.1352 22
-0.07698831 0.041879728 1.1317143 22
-0.073843338 0.037594765 1.136 22
-0.081310958 0.035469051 1.146 22
-0.075427555 0.032754142 1.1465386 22
-0.097427808 0.052591234 1.1316 22
-0.091427945 0.047855876 1.125 22
-0.095752642 0.046141967 1.1356002 22
-0.085319206 0.047120005 1.1245003 22
-0.074673578 0.044160716 1.124125 22
-0.059893332 0.040641904 1.123 22
-0.042150952 0.038989525 1.1065 22
-0.055171911 0.041375954 1.1140001 22
-0.051803812 0.037609529 1.1176667 22
-0.045219522 0.032909289 1.1237501 22
-0.045098286 0.036375433 1.1169002 22
-0.06469366 0.048167303 1.1075 22
-0.064344496 0.053319726 1.0947144 22
-0.066012524 0.051008984 1.1027144 22
-0.058720004 0.050331432 1.1010001 22
-0.064659476 0.044833232 1.1150001 22
-0.05119333 0.04805905 1.097 22
-0.054832924 0.045664225 1.1041428 22
-0.054174528 0.051046669 1.0938751 22
-0.045931749 0.043120638 1.1044167 22
-0.035098668 0.031673908 1.1236001 22
-0.034650669 0.035708196 1.1160001 22
-0.066042542 0.041409209 1.1245 22
-0.064932749 0.035036195 1.1333847 22
-0.056160007 0.031471021 1.1340002 22
-0.063270487 0.038069524 1.126 22
-0.065679058 0.031204445 1.1430001 22
-0.068779603 0.027292222 1.154 22
-0.062267624 0.028401908 1.1470001 22
-0.044546284 0.026810667 1.1352 22
-0.054904766 0.024597332 1.153 22
-0.044524956 0.023133336 1.1458001 22
-0.053106666 0.028179048 1.138 22
-0.055111345 0.035635848 1.1246364 22
-0.045235045 0.030154666 1.1308001 22
-0.054978728 0.02694286 1.1470001 22
-0.037666664 0.030133333 1.13 22
-0.018592859 -0.0011285715 1.1830001 23
-0.013792064 0.001489524 1.1743335 23
-0.014679047 -0.0033904761 1.1855001 23
0.0036114287 -0.0054209526 1.1850002 23
-0.0063431757 0.00074476202 1.1756668 23
-0.0053378358 -0.0043146317 1.1853639 23
0.0031356195 -0.001344381 1.1766001 23
-0.043030716 -0.0088439286 1.2171251 23
-0.050159998 0.0022800001 1.197 23
-0.0452637 0.001768254 1.1947778 23
-0.042842861 -0.002284762 1.1995001 23
-0.024433017 -0.0064920634 1.2026668 23
-0.034691386 -0.0098019512 1.2169615 23
-0.026753524 -0.0083032381 1.2108001 23
-0.024261907 -0.012708573 1.2130001 23
-0.035307616 0 1.1960001 23
-0.036569208 -0.0022860318 1.2001667 23
-0.02713728 -0.0016269389 1.1944287 23
-0.017171429 -0.0091580953 1.202 23
-0.014037143 -0.0075885719 1.1950002 23
-0.014419593 -0.01245388 1.2042859 23
-0.0063687623 -0.0086411433 1.1938 23
-0.0048085712 -0.011890857 1.2003001 23
0.0045478097 -0.0090956194 1.1938 23
0.0045600007 -0.0114 1.197 23
0.015155103 -0.0058073471 1.1850002 24
0.015426666 0.0088152383 1.1570001 24
0.015518459 0.0035843991 1.1640478 24
0.019483335 -0.0022266668 1.169 24
0.012856668 -0.0027966669 1.174 24
0.026032699 0.0080653969 1.155 24
0.0352 0.0076980959 1.155 24
0.024863619 -0.0056527611 1.1866001 24
0.034595132 -0.0075246566 1.1845556 24
0.025165582 0.0028454424 1.1632859 24
0.035177961 0.0023721089 1.1647143 24
0.026902858 -0.0022419048 1.177 24
0.035211429 -0.003201633 1.1764287 24
0.04503848 -0.0078824768 1.1822001 24
0.055299997 -0.0079038097 1.1850001 24
0.0451781 0.0088152383 1.1570001 24
0.045172215 0.0031273947 1.1652354 24
0.055095237 0.0088152383 1.1570001 24
0.054950476 0.0035658202 1.1643335 24
0.044761907 -0.0033590477 1.1750001 24
0.054833334 -0.0033590477 1.1750001 24
0.025063813 0.014160478 1.1442502 24
0.034969404 0.013110097 1.1474003 24
0.0455858 0.015058702 1.1446364 24
0.045021906 0.010980952 1.153 24
0.055796906 0.011818809 1.1545 24
0.014770476 -0.0090895239 1.1930001 24
0.024811774 -0.010961558 1.1940911 24
0.035546668 -0.017201906 1.2040001 24
0.036651701 -0.01200517 1.192143 24
0.045475051 -0.013643429 1.1938 24
0.044720002 -0.017201904 1.2040001 24
0.045295235 -0.01132381 1.189 24
0.055744767 -0.012515238 1.1945 24
0.054097965 -0.01672109 1.2048573 24
0.065245494 -0.0058406726 1.1835881 24
0.061706673 0.0088152383 1.1570001 24
0.065287076 0.0055405446 1.1647143 24
0.063894287 -0.0022419048 1.177 24
0.065301776 0.0006394558 1.1764287 24
0.073665954 0.0075045237 1.1675 24
0.080159999 0.0089066671 1.169 24
0.075368099 -0.0021580085 1.1835456 24
0.075783573 0.0036335713 1.1745001 24
0.084993184 -0.00098165078 1.1841335 24
0.084958762 0.0057927174 1.1755884 24
0.06855429 0.011057143 1.161 24
0.084902868 0.011171429 1.1730001 24
0.064212196 -0.011840763 1.1954001 24
0.075833663 -0.008720953 1.1943333 24
0.072960004 -0.011400001 1.197 24
0.085628062 -0.0070348061 1.1944547 24
0.083220005 -0.0114 1.197 24
0.094222516 -0.0055935932 1.1959094 24
0.09768635 -0.0083949212 1.202 24
0.091722861 -0.0022647618 1.189 24
0.099227309 0.00075746037 1.1930001 24
0.035733681 -0.022706151 1.2139091 25
0.045103814 -0.023135876 1.2143333 25
0.053972282 -0.022362964 1.2143334 25
0.02487837 -0.03160055 1.2354287 25
0.02514286 -0.027154289 1.2320002 25
0.032371432 -0.031194288 1.2360001 25
0.032681908 -0.025680637 1.2256669 25
0.0352 -0.028160004 1.2320002 25
0.025449049 -0.03492143 1.243 25
0.034830749 -0.033816602 1.2427144 25
0.044586673 -0.028160002 1.2320001 25
0.052212656 -0.027526941 1.226143 25
0.044167861 -0.031717855 1.245 25
0.055637144 -0.031962857 1.243 25
0.016014967 -0.036799997 1.2521429 25
0.024365716 -0.037740953 1.2540001 25
0.038308576 -0.037113335 1.2570001 25
0.03611429 -0.039725717 1.2640002 25
0.045352384 -0.040864766 1.2652729 25
0.052422859 -0.040976509 1.2653334 25
0.055769525 -0.048495241 1.273 25
0.044239052 -0.035874289 1.2555001 25
0.05478254 -0.036061272 1.2550001 25
0.064017147 -0.021212701 1.2148335 25
0.075307146 -0.02201524 1.2165 25
0.083743811 -0.02161397 1.2156668 25
0.057680003 -0.030605715 1.2360001 25
0.064533338 -0.030506669 1.2320001 25
0.064908266 -0.02565524 1.2243333 25
0.06516476 -0.03317333 1.244 25
0.072982863 -0.030605715 1.2360001 25
0.074788578 -0.025708575 1.2270001 25
0.075093344 -0.028160004 1.2320002 25
0.082400009 -0.030605715 1.2360001 25
0.085425153 -0.024743242 1.2254002 25
0.086471632 -0.027727241 1.2336 25
0.075361148 -0.032705903 1.2442 25
0.083983809 -0.032529049 1.2420001 25
0.057619046 -0.018438097 1.21 25
0.065775923 -0.016757008 1.2071431 25
0.074901164 -0.014524021 1.2037779 25
0.084367238 -0.013528 1.2036 25
0.074904762 -0.018438095 1.21 25
0.085646816 -0.01745905 1.2105716 25
0.09405905 -0.022544129 1.2243335 25
0.094395436 -0.025362287 1.2328001 25
0.091299996 -0.030828571 1.245 25
0.09757638 -0.02747505 1.2434 25
0.10357143 -0.028571429 1.25 25
0.10540191 -0.023058288 1.2352002 25
0.10609303 -0.026820321 1.2423334 25
0.093977146 -0.011460318 1.2033334 25
0.094119564 -0.018350039 1.2154745 25
0.10521557 -0.013879368 1.214 25
0.1028343 -0.021034289 1.2270001 25
0.10497029 -0.018660573 1.2246002 25
0.067146674 -0.040767621 1.2590001 25
0.064002074 -0.043840002 1.2658181 25
0.067510635 -0.050127614 1.2734166 25
0.065631911 -0.036996193 1.253 25
0.071942858 -0.040767621 1.2590001 25
0.074752383 -0.043106668 1.2659999 25
0.085605718 -0.039790474 1.266 25
0.074197717 -0.047525331 1.273 25
0.075318813 -0.03706238 1.2552501 25
0.085724965 -0.035443809 1.2572001 25
0.094307154 -0.034626666 1.2535 25
0.10464776 -0.033239461 1.2527144 25
0.022100002 0.039990477 1.105 26
0.025522763 0.035085902 1.1164999 26
0.035687938 0.040986039 1.113 26
0.034444679 0.036184419 1.1175456 26
0.045325033 0.042442724 1.1141429 26
0.044730287 0.037272576 1.1182002 26
0.053285718 0.038365718 1.1190002 26
0.025950929 0.044277642 1.1045713 26
0.035123937 0.045906547 1.1049998 26
0.035651434 0.050930616 1.1010001 26
0.044018205 0.046827093 1.1063334 26
0.055103969 0.044821985 1.1162083 26
0.024867937 0.021618415 1.1353333 26
0.034620952 0.018390477 1.1359999 26
0.034487877 0.023707176 1.1316001 26
0.025222436 0.029028995 1.1243334 26
0.035242118 0.029763917 1.1251667 26
0.044981223 0.021864627 1.1361001 26
0.055111624 0.025099684 1.1361334 26
0.054707818 0.016728256 1.1458002 26
0.044765767 0.032404341 1.1279724 26
0.054966986 0.032330796 1.1316667 26
0.093599536 0.0084071429 1.177 26
0.09539865 0.0038623132 1.1844287 26
0.10428976 0.007629286 1.1870002 26
0.059893332 0.040641904 1.123 26
0.062289055 0.047380477 1.118 26
0.056698576 0.053163655 1.1127503 26
0.066083997 0.05398497 1.1197648 26
0.06728708 0.06455566 1.1138572 26
0.071047626 0.058969527 1.1190002 26
0.061706033 0.025979683 1.1366668 26
0.056506667 0.021733332 1.141 26
0.064058863 0.017925715 1.1478002 26
0.065034918 0.012955979 1.1552222 26
0.06655018 0.024807621 1.1440771 26
0.071675718 0.019150002 1.149 26
0.05606889 0.037141588 1.125 26
0.064682409 0.034491427 1.1319129 26
0.068876192 0.040895235 1.13 26
0.06954667 0.030426668 1.141 26
0.074588574 0.0165955 1.1548182 26
0.074781597 0.025362542 1.1479335 26
0.07796476 0.021961903 1.153 26
0.085361481 0.02494688 1.1556666 26
0.073475927 0.037663132 1.1345714 26
0.075750344 0.033180665 1.1437694 26
0.082290284 0.027138287 1.149 26
0.085272007 0.034979355 1.1478802 26
0.076595433 0.012616574 1.1622001 26
0.085695557 0.015528253 1.1652224 26
0.084446192 0.020974286 1.159 26
0.068691872 0.046604067 1.1258001 26
0.075771794 0.044967256 1.1319048 26
0.075846188 0.054716274 1.1275001 26
0.083615713 0.047082856 1.1365 26
0.086740807 0.044371724 1.1428463 26
0.092821918 0.027881905 1.1556667 26
0.09371715 0.035917621 1.1486669 26
0.097670473 0.03422939 1.1541429 26
0.09370207 0.017554764 1.1643333 26
0.1002 0.017813334 1.169 26
0.096025988 0.024360547 1.1627145 26
0.10312928 0.025848811 1.1675 26
0.09587881 0.012578335 1.1740001 26
0.10333777 0.015437461 1.1765556 26
0.099514283 0.030959999 1.161 26
0.10653843 0.012753652 1.1816669 26
0.11097334 0.0090590473 1.189 26
0.078720003 -0.054979049 1.312 27
0.08564572 -0.053990003 1.3032501 27
0.08621715 -0.056853335 1.312 27
0.095481694 -0.055678308 1.3153334 27
0.10548504 -0.055250067 1.3141431 27
0.11665197 -0.053702593 1.307 27
0.12397828 -0.053275812 1.307 27
0.078060955 -0.05791619 1.322 27
0.08057905 -0.05791619 1.322 27
0.084317468 -0.060708575 1.3280001 27
0.092988566 -0.060320005 1.3195001 27
0.10159715 -0.060205717 1.317 27
0.10576 -0.060434286 1.322 27
0.11414 -0.056442861 1.317 27
0.08443895 -0.0447837 1.2746665 27
0.078506671 -0.04906667 1.2880001 27
0.076584771 -0.051880002 1.2970002 27
0.084475718 -0.048971429 1.2855 27
0.083777145 -0.051746666 1.2936667 27
0.095401913 -0.041059047 1.268 27
0.10068191 -0.039790474 1.266 27
0.095778093 -0.043645713 1.273 27
0.1001962 -0.046432387 1.2830001 27
0.10473143 -0.038521904 1.2640001 27
0.11540572 -0.03780064 1.2666667 27
0.10629028 -0.043195046 1.274 27
0.11491511 -0.042356737 1.2758572 27
0.094085336 -0.048089147 1.2880001 27
0.093357146 -0.052280001 1.307 27
0.099580958 -0.049790479 1.307 27
0.11760446 -0.045738414 1.2863334 27
0.1158108 -0.048459049 1.2936668 27
0.10616272 -0.048645992 1.3048571 27
0.11256953 -0.048836827 1.3036668 27
0.12536573 -0.04138286 1.2780001 27
0.12225779 -0.046613336 1.2880001 27
0.12686285 -0.046803333 1.2932501 27
0.13306287 -0.044354286 1.2936668 27
0.12945524 -0.049790479 1.307 27
0.13369904 -0.049980953 1.312 27
0.13965523 -0.04765556 1.3053334 27
0.1322 -0.05288 1.322 27
0.13671714 -0.052680001 1.317 27
0.065264367 0.10517633 1.0849473 28
0.068662003 0.095604785 1.0936668 28
0.074781388 0.084722437 1.1058888 28
0.080198094 0.088640004 1.108 28
0.078369536 0.080487624 1.1120001 28
0.084654868 0.085155651 1.1163334 28
0.076554388 0.094086863 1.1025999 28
0.074288324 0.10495819 1.0928948 28
0.078852579 0.10234058 1.1010001 28
0.082308576 0.096026666 1.108 28
0.083265826 0.10641735 1.1051111 28
0.086773932 0.095261782 1.1144999 28
0.087360971 0.10453353 1.1132001 28
0.070396192 0.10973524 1.087 28
0.066747367 0.11511394 1.0827273 28
0.066047966 0.13478319 1.0743636 28
0.069942862 0.12548572 1.0800002 28
0.076637723 0.11349665 1.0913334 28
0.074931853 0.11858687 1.0885 28
0.07424143 0.12482696 1.08415 28
0.074484497 0.13507096 1.0797143 28
0.080748573 0.12733427 1.087 28
0.081056505 0.13520733 1.0864999 28
0.082024775 0.11572709 1.096143 28
0.086487763 0.11509467 1.1033076 28
0.083629057 0.12500493 1.0953335 28
0.087660573 0.12415087 1.1010001 28
0.085452311 0.1354674 1.094154 28
0.092635244 0.096358575 1.118 28
0.094324641 0.10496322 1.1175001 28
0.098396197 0.10267429 1.123 28
0.091372065 0.11702381 1.1070001 28
0.092221498 0.11209293 1.1129689 28
0.10159811 0.1155708 1.1190001 28
0.092657588 0.12488733 1.1055385 28
0.091030799 0.13311219 1.1027857 28
0.098324679 0.12473577 1.1133637 28
0.10347773 0.12540706 1.1178001 28
0.099020958 0.13291049 1.1120001 28
0.10836215 0.12414549 1.1237501 28
0.10530011 0.13440399 1.1156499 28
0.11083429 0.13854288 1.1190001 28
0.098762773 0.095457464 1.1251252 28
0.10232239 0.10553381 1.1250002 28
0.10690714 0.10475 1.131 28
0.11156518 0.10600219 1.1357144 28
0.10669844 0.115243 1.1271429 28
0.11267511 0.11437172 1.136 28
0.11152762 0.12761334 1.126 28
0.11311933 0.13511813 1.1243638 28
0.067900643 0.1444743 1.0720834 28
0.069117472 0.15457779 1.0725 28
0.068740688 0.16485906 1.0704287 28
0.073194973 0.14601283 1.0755454 28
0.077323824 0.14381903 1.0825 28
0.077287629 0.15457146 1.082 28
0.082025625 0.14523706 1.0864546 28
0.072563596 0.15513101 1.0747778 28
0.0735313 0.16562137 1.0744286 28
0.077372529 0.16327293 1.0811429 28
0.082729153 0.15511315 1.0857999 28
0.08266858 0.16533335 1.085 28
0.087625854 0.14548981 1.0934286 28
0.069295242 0.1752762 1.0700001 28
0.074017785 0.1747942 1.0754001 28
0.073681034 0.18487217 1.0744666 28
0.078171432 0.17588572 1.08 28
0.078171432 0.18514286 1.08 28
0.082744293 0.17479573 1.086 28
0.08823809 0.1557143 1.09 28
0.088238098 0.16505714 1.09 28
0.095570579 0.14466259 1.1038998 28
0.091939047 0.14835618 1.097 28
0.10141017 0.1427089 1.1072501 28
0.09720514 0.15409715 1.1022002 28
0.093023911 0.15591776 1.0940911 28
0.093942322 0.16495091 1.0942143 28
0.10287016 0.15623066 1.1059167 28
0.09856572 0.1656743 1.1010001 28
0.10618056 0.14449878 1.1132859 28
0.11158405 0.14566976 1.1185001 28
0.10696382 0.15356193 1.1120001 28
0.10409697 0.1652419 1.1034762 28
0.11240044 0.15575194 1.1166155 28
0.11358406 0.16578355 1.1151053 28
0.08823809 0.17440002 1.09 28
0.093944788 0.17536001 1.0960001 28
0.09856572 0.17511143 1.1010001 28
0.10544097 0.17511733 1.1040453 28
0.082819052 0.18427239 1.0870001 29
0.078316197 0.19476382 1.082 29
0.082789339 0.19455352 1.0866001 29
0.088238098 0.18478096 1.09 29
0.088231958 0.19493927 1.0913334 29
0.093463808 0.1846578 1.0944167 29
0.098216198 0.18524763 1.1010001 29
0.092816196 0.19397096 1.095 29
0.091939054 0.20268381 1.097 29
0.10063892 0.1955626 1.1043833 29
0.10473993 0.18469489 1.104727 29
0.11545135 0.18489479 1.1145238 29
0.10802287 0.19168764 1.1120001 29
0.11441806 0.19502831 1.1150433 29
0.12149144 0.19289429 1.1190001 29
0.08510974 0.20489877 1.0893637 29
0.081276469 0.21427323 1.0861429 29
0.082272001 0.22439639 1.0893002 29
0.085522547 0.21541758 1.0921112 29
0.078332528 0.23470642 1.0945716 29
0.087730482 0.22439431 1.1010001 29
0.083461434 0.23473573 1.0954168 29
0.079401903 0.24029523 1.097 29
0.077419527 0.2455405 1.101 29
0.081491433 0.24029523 1.097 29
0.085363939 0.24515122 1.1037998 29
0.077672221 0.25482908 1.104818 29
0.083044298 0.25361407 1.10725 29
0.077118732 0.2667346 1.1143334 29
0.087279186 0.25577688 1.1137143 29
0.085512221 0.26497194 1.1199168 29
0.095701724 0.20582667 1.1034 29
0.0949229 0.21489187 1.1041738 29
0.10335848 0.20333962 1.1073999 29
0.10130286 0.21210286 1.108 29
0.094282635 0.22466326 1.1057618 29
0.090234861 0.23461382 1.1042 29
0.099550486 0.2287543 1.1120001 29
0.10637546 0.20733801 1.1120001 29
0.1054845 0.21566273 1.1139287 29
0.11512701 0.20472263 1.1164089 29
0.11599317 0.21469697 1.1205001 29
0.10480688 0.22446193 1.1140555 29
0.11136715 0.22326715 1.1190001 29
0.10426553 0.23342097 1.1171001 29
0.091278099 0.24217716 1.108 29
0.094820946 0.24613406 1.1132858 29
0.097840443 0.23579475 1.1129233 29
0.10088763 0.24475907 1.1190001 29
0.09388262 0.25371954 1.117 29
0.098973811 0.25412622 1.1235001 29
0.10771398 0.23647051 1.1235001 29
0.11189715 0.23408459 1.1253999 29
0.09174668 0.26409528 1.1253999 29
0.099009521 0.25828573 1.13 29
0.09645991 0.26505697 1.1321819 29
0.11152762 0.24021335 1.126 29
0.10699524 0.24541378 1.1271667 29
0.10504496 0.25538594 1.1324 29
0.10440762 0.2612305 1.1372001 29
0.11206913 0.25223026 1.1345714 29
0.075295791 0.27895141 1.116909 29
0.080994293 0.27175716 1.1190001 29
0.11352165 -0.022168165 1.234286 30
0.11520296 -0.026830474 1.2427778 30
0.10412233 -0.0058569312 1.202889 30
0.10659524 -0.008642857 1.21 30
0.11476912 -0.0076859263 1.2104446 30
0.11284287 -0.012154287 1.2152501 30
0.10632333 0.0024617461 1.194 30
0.10488 -0.0022800004 1.197 30
0.11842414 0.00076317461 1.2033334 30
0.11468738 0.0049765473 1.19525 30
0.1153524 -0.0032772792 1.2042859 30
0.11608056 -0.01467864 1.2258574 30
0.116864 -0.018304 1.2320002 30
0.11494344 -0.03298324 1.2545999 30
0.12006857 -0.021188572 1.2360001 30
0.12433366 -0.0242773 1.2433333 30
0.12619047 -0.028571431 1.25 30
0.13000953 -0.021274287 1.2410001 30
0.12371302 -0.0053947093 1.2127779 30
0.12500028 0.0026165987 1.2025715 30
0.12376362 0.0072929524 1.1966002 30
0.12367905 -0.0011485715 1.2080001 30
0.12626922 -0.016251432 1.2333336 30
0.12493524 -0.010509524 1.2260001 30
0.13367403 -0.013435648 1.2342858 30
0.13563736 -0.0089173345 1.2320002 30
0.13390979 -0.0044583553 1.2255456 30
0.14403658 -0.006112 1.2336001 30
0.13707565 -0.016249252 1.2438571 30
0.13809523 -0.019047618 1.25 30
0.14538451 -0.017280951 1.25125 30
0.14829206 -0.0086774603 1.2423334 30
0.14465714 -0.013042858 1.245 30
0.14000383 -0.0011685716 1.2250001 30
0.15172954 -0.003529524 1.2350001 30
0.15600571 -0.0064238096 1.2485001 30
0.13443659 -0.037371811 1.274 30
0.12318429 -0.032293811 1.2557501 30
0.12487163 -0.036403809 1.2656001 30
0.1335035 -0.032975238 1.2666667 30
0.13462636 -0.02470143 1.2546668 30
0.13807525 -0.039100956 1.2830001 30
0.1408889 -0.032203175 1.268 30
0.14305954 -0.022148097 1.2570001 30
0.13883938 -0.02808889 1.2640002 30
0.14516573 -0.025333334 1.2666668 30
0.14343557 -0.03403556 1.2763335 30
0.14729588 -0.028326986 1.2746668 30
0.1367127 -0.042443495 1.2855 30
0.14547715 -0.043152384 1.2945001 30
0.1466724 -0.036468152 1.2857778 30
0.15410645 -0.024022646 1.2752222 30
0.16066287 -0.021908572 1.2780001 30
0.15374933 -0.039653063 1.2952144 30
0.15447566 -0.033277556 1.2872858 30
0.1562013 -0.028549209 1.2846668 30
0.16418192 -0.033742543 1.2961667 30
0.16606659 -0.02651743 1.2887501 30
0.17046286 -0.03211619 1.2970001 30
0.17262667 -0.022037145 1.2855 30
0.17315696 -0.026644954 1.2950001 30
0.15296 -0.013147144 1.25475 30
0.15592305 -0.016628573 1.2652 30
0.16492698 -0.013677883 1.2671111 30
0.16572446 -0.0088279368 1.2640001 30
0.16469714 -0.018615238 1.2746667 30
0.16429311 -0.0044914288 1.2568749 30
0.17148191 -0.01328381 1.268 30
0.17236246 -0.0055172793 1.2668571 30
0.17451844 -0.014580317 1.2755001 30
0.17525296 -0.018601527 1.2850002 30
0.075761087 0.064290926 1.1208335 31
0.075742185 0.073616259 1.1136471 31
0.084094882 0.070879534 1.1211876 31
0.08536049 0.055102859 1.1345 31
0.079638094 0.060266666 1.13 31
0.085198283 0.063923061 1.1279547 31
0.10278603 0.038176514 1.1563334 31
0.10738815 0.023402786 1.1745386 31
0.11376458 0.014893589 1.1850002 31
0.11631429 0.022511326 1.1818889 31
0.10607049 0.034192111 1.1635716 31
0.1121528 0.036063071 1.1672221 31
0.11586636 0.030697618 1.1750668 31
0.11785857 0.04189286 1.1730001 31
0.0927101 0.057617523 1.1372001 31
0.094707422 0.04534667 1.145889 31
0.095879331 0.054074563 1.1421428 31
0.10154972 0.046397716 1.149 31
0.094341397 0.065323368 1.1341907 31
0.099429995 0.062483333 1.141 31
0.1055169 0.044362593 1.1540909 31
0.10396021 0.055013437 1.1476668 31
0.10871143 0.053806666 1.153 31
0.10576212 0.064763702 1.1468825 31
0.10709269 0.074305281 1.1474003 31
0.1136908 0.065279789 1.1552222 31
0.11523297 0.074619927 1.1548461 31
0.11019048 0.048483815 1.1570001 31
0.11393935 0.045538902 1.164077 31
0.1143142 0.055272806 1.1593812 31
0.11852817 0.064793751 1.1615715 31
0.11886428 0.072977141 1.161 31
0.12413216 0.026073847 1.1865386 31
0.12603669 0.034370005 1.1833334 31
0.12162333 0.036430955 1.177 31
0.1312457 0.035071429 1.1880001 31
0.12135333 0.05455333 1.1690001 31
0.12273597 0.045269307 1.1748463 31
0.12758017 0.044026401 1.1810002 31
0.12596127 0.054407407 1.173889 31
0.1321343 0.045169525 1.1858002 31
0.13254479 0.055679809 1.1834 31
0.1231815 0.065717287 1.1667144 31
0.12715118 0.064591177 1.1730003 31
0.13077778 0.064267933 1.177 31
0.13529143 0.065387987 1.1837693 31
0.12958857 0.072614297 1.1730001 31
0.1362569 0.074877016 1.1810002 31
0.083346948 0.075739056 1.1178573 31
0.090745725 0.085938573 1.1210001 31
0.091152385 0.076139048 1.126 31
0.092699528 0.084660955 1.12525 31
0.098931596 0.075372256 1.1348842 31
0.097148396 0.084806584 1.131091 31
0.10273714 0.085431427 1.1355001 31
0.10762651 0.084630139 1.1446366 31
0.11234667 0.078059055 1.149 31
0.11334828 0.085764408 1.1477695 31
0.11833112 0.087004915 1.154 31
0.10803168 0.0966831 1.13425 31
0.10866667 0.092366666 1.141 31
0.1148181 0.094404079 1.1450001 31
0.11604053 0.10395515 1.1435454 31
0.12128905 0.096583337 1.1524999 31
0.12312425 0.10509443 1.1518571 31
0.12120952 0.078235239 1.1570001 31
0.12524369 0.075200006 1.1658002 31
0.12194413 0.085581273 1.1570001 31
0.12705421 0.084496461 1.1646365 31
0.13137333 0.086839996 1.169 31
0.13263087 0.075723052 1.1762002 31
0.13451146 0.085047625 1.1750001 31
0.12705646 0.094838277 1.1628183 31
0.1318811 0.095967896 1.1678572 31
0.12826285 0.10393715 1.161 31
0.13286546 0.10540225 1.166091 31
0.14100721 0.08540491 1.1844287 31
0.13685207 0.09504889 1.1756668 31
0.13947049 0.092230484 1.1810001 31
0.13135618 0.029441904 1.189 31
0.13665016 0.035300635 1.1956666 31
0.13761847 0.045491051 1.1941999 31
0.14136 0.046740003 1.197 31
0.13785778 0.054915875 1.1930001 31
0.14313959 0.055928312 1.1962729 31
0.13861524 0.061354291 1.1930001 31
0.14041524 0.067942858 1.189 31
0.14484955 0.064679362 1.1956668 31
0.14079271 0.075492062 1.1890001 31
0.14552939 0.074945249 1.1953335 31
0.15048 0.079800002 1.197 31
0.14738014 0.085051976 1.1930001 31
0.11816382 0.011361905 1.1930001 32
0.13093714 0.0091885719 1.2060001 32
0.13501461 0.004623069 1.2151113 32
0.14163621 0.0081266677 1.2190001 32
0.14575788 0.0042767194 1.2254444 32
0.15454631 0.0046963808 1.2330669 32
0.16009143 0.0094171437 1.2360001 32
0.15837525 0 1.2410001 32
0.16294628 0.0054466669 1.2434 32
0.16744354 0.0040843538 1.2507143 32
0.17761382 -0.0060619046 1.2729999 32
0.18183184 -0.0094453068 1.2772858 32
0.17208034 0.005586667 1.2576668 32
0.17920038 0.0059089526 1.2662001 32
0.17943239 0 1.273 32
0.12246083 0.016487563 1.1918236 32
0.12759167 0.022448333 1.1935 32
0.13386519 0.026062857 1.1956668 32
0.13343728 0.0157366 1.2048573 32
0.13798095 0.024182435 1.2028888 32
0.13663946 0.013499322 1.21 32
0.14355478 0.01560524 1.2139168 32
0.14310986 0.026400639 1.2053335 32
0.14863324 0.025166716 1.2149251 32
0.14333524 0.035546668 1.2040001 32
0.14796571 0.036415238 1.21 32
0.14862905 0.013404286 1.2240001 32
0.14728571 0.053868573 1.2035002 32
0.14779757 0.046539471 1.2081667 32
0.14881906 0.07440953 1.202 32
0.15361954 0.034892146 1.2161875 32
0.15261081 0.015960319 1.2263335 32
0.15644446 0.014471113 1.2320002 32
0.15598081 0.024192208 1.2255455 32
0.15957335 0.021120002 1.2320001 32
0.16009143 0.015302857 1.2360001 32
0.16498634 0.025002256 1.234182 32
0.16578032 0.015392697 1.2433335 32
0.16783048 0.021274287 1.2410001 32
0.15840761 0.032613337 1.223 32
0.16126287 0.028045716 1.2270001 32
0.16260676 0.035448838 1.2259092 32
0.17227891 0.025383132 1.2438571 32
0.17717263 0.024117857 1.250625 32
0.167978 0.034689527 1.2324446 32
0.17290001 0.036459051 1.2350001 32
0.17648476 0.033166986 1.2436666 32
0.18022858 0.037942857 1.245 32
0.15495366 0.045094766 1.2141666 32
0.15415478 0.056284834 1.2088573 32
0.16021144 0.045277145 1.2190001 32
0.16292033 0.055338737 1.2190001 32
0.15212573 0.074531436 1.204 32
0.15257145 0.065388575 1.2045 32
0.1582963 0.065164022 1.2122223 32
0.16418889 0.065422423 1.2166923 32
0.1652023 0.045966286 1.2250003 32
0.16662966 0.053654157 1.2247145 32
0.16772571 0.061732378 1.223 32
0.17082572 0.044615246 1.2327502 32
0.17276192 0.055236198 1.2340002 32
0.17796108 0.04592545 1.2410001 32
0.18141429 0.045057144 1.245 32
0.17775849 0.054840386 1.2410001 32
0.18141429 0.056123815 1.245 32
0.17081557 0.065754615 1.2256668 32
0.17501716 0.063818425 1.2333335 32
0.17761144 0.074271433 1.2330002 32
0.17917678 0.065241151 1.2410001 32
0.17487769 0.015812309 1.255 32
0.1573943 0.07500305 1.2116001 32
0.17227015 0.075737327 1.2251819 32
0.18817335 0.0024438098 1.2830002 32
0.18525358 0.0045559523 1.2754999 32
0.18760321 -0.0069352388 1.2846668 32
0.1921778 -0.0053155562 1.2880001 32
0.18259999 0.065214284 1.245 33
0.18253651 0.031701587 1.2536112 33
0.19579393 0.0050105564 1.2887501 33
0.18690476 0.065476187 1.25 33
0.18809526 0.073809519 1.25 33
0.18755722 0.016945496 1.2673845 33
0.18833938 0.025173506 1.2669091 33
0.18950287 0.013359999 1.2755001 33
0.19333762 0.015808571 1.2767501 33
0.19528976 0.025470713 1.2736249 33
0.18809143 0.032552384 1.266 33
0.19160889 0.035826035 1.2680001 33
0.19720304 0.034729332 1.275 33
0.20541495 0.035456669 1.2838334 33
0.19823125 0.013978286 1.2880001 33
0.20117335 0.018400002 1.2880001 33
0.20450604 0.016457144 1.2961668 33
0.20383018 0.026372166 1.2856925 33
0.20875525 0.023469523 1.2970001 33
0.21246096 0.028410478 1.2970001 33
0.21098667 0.039253335 1.2880001 33
0.21456595 0.035943285 1.2964445 33
0.18895906 0.046047144 1.2556875 33
0.1869221 0.055077929 1.2522728 33
0.19359618 0.044630475 1.2665 33
0.19244216 0.055965956 1.257 33
0.19683048 0.05342349 1.2653334 33
0.19801676 0.043193143 1.274 33
0.19245619 0.065742858 1.255125 33
0.19832763 0.06500572 1.2640001 33
0.20046477 0.055550478 1.268 33
0.20394772 0.04610467 1.28075 33
0.20448738 0.054608338 1.2742499 33
0.20772383 0.051320005 1.2830001 33
0.20239694 0.063279241 1.268 33
0.20278858 0.07483647 1.2674286 33
0.2075219 0.064316906 1.2742499 33
0.20772667 0.074100479 1.2754999 33
0.21178287 0.066942863 1.2780001 33
0.21098667 0.045386668 1.2880001 33
0.21168712 0.055631846 1.2858572 33
0.2142524 0.064891905 1.2855 33
0.22172649 0.036785908 1.3050002 33
0.21616665 0.045703806 1.2970001 33
0.21674211 0.054804575 1.296 33
0.22275536 0.046371646 1.3042223 33
0.22356036 0.055888884 1.3040835 33
0.21842763 0.06417048 1.29575 33
0.21902478 0.073828578 1.2920001 33
0.22534563 0.065826803 1.304143 33
0.22642811 0.074235246 1.3045001 33
0.18392023 0.074988574 1.2432222 33
0.18800549 0.084378339 1.2435 33
0.19208571 0.08774285 1.245 33
0.19562069 0.094421528 1.2471001 33
0.19330461 0.075583376 1.2542727 33
0.19935086 0.075117715 1.2640001 33
0.19505487 0.084512576 1.2534001 33
0.19983238 0.083062857 1.2640001 33
0.20144001 0.087530479 1.2590001 33
0.20520552 0.085456938 1.2657777 33
0.20852952 0.081229523 1.273 33
0.2121233 0.085400827 1.2758572 33
0.20195715 0.094400719 1.25475 33
0.20705524 0.095100954 1.2640001 33
0.21012573 0.096609525 1.268 33
0.2132543 0.09428063 1.2746667 33
0.21490364 0.075141154 1.2850001 33
0.21682572 0.083549216 1.2838334 33
0.21749906 0.094086677 1.2830001 33
0.22334743 0.079879433 1.296375 33
0.22080003 0.087093338 1.2880001 33
0.22950256 0.086786196 1.3049167 33
0.22080003 0.094453335 1.2880001 33
0.22534797 0.094164446 1.2953334 33
0.12766287 -0.061897147 1.3540001 34
0.13540001 -0.061897147 1.3540001 34
0.13154078 -0.05843772 1.3515 34
0.13668953 -0.058458418 1.3540001 34
0.14519262 -0.055375718 1.3521252 34
0.14690001 -0.063699998 1.365 34
0.14646667 -0.058933333 1.3650001 34
0.16537143 -0.053840004 1.3460001 34
0.15404649 -0.055831242 1.3570002 34
0.16201715 -0.058604449 1.3573335 34
0.15442215 -0.064832382 1.36825 34
0.15556668 -0.05893334 1.365 34
0.16476144 -0.064076193 1.373 34
0.17537525 -0.055879369 1.3540001 34
0.17027144 -0.057409529 1.3700001 34
0.17429332 -0.060281906 1.376 34
0.18292955 -0.060106672 1.3720001 34
0.16572002 -0.068392381 1.381 34
0.17489409 -0.063934103 1.3870001 34
0.17783999 -0.066857144 1.404 34
0.18568859 -0.056036193 1.36825 34
0.19505095 -0.054980002 1.3745 34
0.19620572 -0.071588576 1.3920001 34
0.1853143 -0.069828585 1.4100002 34
0.18600002 -0.06510286 1.3950002 34
0.1893943 -0.060500953 1.381 34
0.19463658 -0.061715432 1.3846 34
0.19512801 -0.066904008 1.3938001 34
0.19814287 -0.058121908 1.3870001 34
0.18586287 -0.068194285 1.404 34
0.20479186 -0.063332252 1.3937144 34
0.20276618 -0.058452144 1.3870001 34
0.20681143 -0.058331437 1.3920001 34
0.21485525 -0.055360004 1.3840001 34
0.21476573 -0.059657149 1.3920001 34
0.18597142 -0.07277143 1.4150002 34
0.14556953 -0.049356192 1.312 34
0.15701 -0.041581668 1.3032501 34
0.15744001 -0.044982858 1.312 34
0.16554604 -0.037662543 1.3036668 34
0.16274524 -0.043819048 1.3145001 34
0.1686857 -0.039984763 1.312 34
0.17499773 -0.033308189 1.3050002 34
0.17515557 -0.036700319 1.3136668 34
0.15503715 -0.047898099 1.3235 34
0.16602793 -0.046235558 1.3240001 34
0.15572827 -0.050780959 1.3330001 34
0.1579816 -0.052947305 1.3450001 34
0.16545397 -0.05090794 1.3363335 34
0.17309143 -0.040137142 1.317 34
0.17550619 -0.042930476 1.32575 34
0.17878476 -0.03777143 1.322 34
0.18339048 -0.040472381 1.3280001 34
0.17406134 -0.049370863 1.336 34
0.17531747 -0.053027302 1.3470001 34
0.18388318 -0.043220952 1.3346667 34
0.1824362 -0.05139048 1.3490001 34
0.18630856 -0.046419762 1.3445002 34
0.18457098 -0.052920479 1.3552501 34
0.19681488 -0.045459814 1.3560002 34
0.19435 -0.050699998 1.365 34
0.20431145 -0.043965243 1.3577502 34
0.20453334 -0.046799999 1.3650001 34
0.20650192 -0.050728098 1.3745 34
0.21509334 -0.049742859 1.3743335 34
0.18697238 -0.077791438 1.4330001 35
0.19438636 -0.075570166 1.434 35
0.22720383 -0.053168334 1.3870001 36
0.2241783 -0.059392005 1.3920001 36
0.23544689 -0.054354291 1.3920001 36
0.17732 -0.027280001 1.302 36
0.18788905 -0.023641905 1.3065001 36
0.18805334 -0.027489524 1.312 36
0.19542256 -0.023801271 1.3153334 36
0.1851844 -0.014208383 1.2860001 36
0.18536048 -0.017245715 1.2932501 36
0.19251144 -0.014193334 1.29575 36
0.19643685 -0.0069869845 1.2945001 36
0.18647937 -0.019890796 1.3053335 36
0.19588128 -0.016153334 1.3045001 36
0.19742477 -0.018742858 1.312 36
0.20473257 -0.014519239 1.3140001 36
0.20165144 -0.01244762 1.307 36
0.20792077 -0.0079969531 1.3120002 36
0.19472286 -0.039030477 1.3363334 36
0.19683081 -0.041424446 1.345 36
0.187892 -0.031357143 1.317 36
0.18609959 -0.036790203 1.3254286 36
0.19518715 -0.032531906 1.3265001 36
0.19839112 -0.026901588 1.3240001 36
0.20500636 -0.023154922 1.3260001 36
0.20331667 -0.031766668 1.33425 36
0.20627096 -0.035235241 1.3452501 36
0.21439716 -0.032524448 1.348 36
0.21207294 -0.025171159 1.3356786 36
0.20427716 -0.041112382 1.3490001 36
0.20890288 -0.038685717 1.3540001 36
0.21226287 -0.041417144 1.3590001 36
0.21493334 -0.042466667 1.3650001 36
0.20816255 -0.016787302 1.322 36
0.21438839 -0.017311238 1.3265002 36
0.21072 -0.011288571 1.317 36
0.22229907 -0.021212701 1.3363333 36
0.21615905 -0.027499525 1.3430001 36
0.22480766 -0.024902316 1.3455716 36
0.22016001 -0.052419048 1.376 36
0.22229999 -0.0416 1.365 36
0.22464497 -0.045509722 1.3730001 36
0.22619998 -0.039000001 1.3650001 36
0.21855472 -0.033859324 1.3522145 36
0.22454984 -0.034461375 1.3567779 36
0.22824574 -0.027080001 1.3540001 36
0.23746669 -0.039142858 1.3700001 36
0.23423432 -0.043184765 1.3740001 36
0.23260167 -0.032911837 1.3590001 36
0.23331277 -0.021584 1.3490001 36
0.23565187 -0.026155347 1.3578891 36
0.24462003 -0.022002859 1.3590001 36
0.23503999 -0.036400001 1.365 36
0.24378978 -0.034231622 1.3718001 36
0.24615002 -0.027352381 1.3675001 36
0.22175494 -0.011804446 1.3280001 36
0.22566074 -0.014935954 1.3348751 36
0.2285143 -0.007617143 1.3330001 36
0.23476444 -0.014196045 1.3453077 36
0.23607567 -0.0054816329 1.3430002 36
0.24493811 -0.0051323818 1.3465002 36
0.23985144 -0.018053334 1.3540001 36
0.24570821 -0.017035048 1.3550001 36
0.24442597 -0.01188405 1.3490001 36
0.22359048 -0.049979046 1.381 36
0.23421335 -0.048495002 1.3855001 36
0.24531619 -0.050059054 1.3923334 36
0.24617493 -0.041108258 1.3847501 36
0.25345016 -0.01320508 1.3562224 36
0.25749812 -0.00581 1.3552501 36
0.25138286 -0.053485718 1.404 37
0.25622287 -0.053293336 1.4130001 37
0.25848669 -0.056840006 1.4210001 37
0.26525337 -0.055035561 1.4210002 37
0.25161144 -0.032761905 1.376 37
0.25306666 -0.021666666 1.3650001 37
0.2598719 -0.02355 1.3737501 37
0.25653332 -0.017333334 1.3650001 37
0.26208001 -0.012480001 1.365 37
0.26652345 -0.01568 1.3718001 37
0.25186163 -0.043151118 1.3870001 37
0.2575421 -0.041715812 1.3920001 37
0.2503086 -0.050594289 1.3980001 37
0.25673142 -0.048137143 1.404 37
0.25546575 -0.035648573 1.38625 37
0.26286954 -0.033023812 1.3870001 37
0.25778666 -0.028935237 1.381 37
0.26638001 -0.037202861 1.3950001 37
0.26476574 -0.043906674 1.3970002 37
0.27277714 -0.037439998 1.404 37
0.27102858 -0.033217143 1.3950001 37
0.26590142 -0.02694265 1.3836668 37
0.27348322 -0.022866033 1.3850001 37
0.27574858 -0.027177144 1.3920001 37
0.2777029 -0.034377147 1.4100001 37
0.26496121 -0.050110005 1.4143751 37
0.27477553 -0.044258501 1.4142859 37
0.27878669 -0.043306671 1.4210001 37
0.28390101 -0.041716959 1.4222001 37
0.29083622 -0.040771428 1.427 37
0.28344923 -0.035038099 1.4150002 37
0.29169065 -0.035011098 1.4222001 37
0.20010859 0.0012352382 1.2970001 38
0.20383239 -0.0049695238 1.3050002 38
0.20610671 0.0049663498 1.3036667 38
0.21345095 -0.0043828571 1.3145001 38
0.2128543 0.0049790475 1.307 38
0.21741717 0.007497143 1.312 38
0.2077 0.014260001 1.302 38
0.21403161 0.016175557 1.3065835 38
0.21991619 0.017493334 1.312 38
0.21606392 0.025284678 1.3038183 38
0.22409678 0.024063239 1.3160001 38
0.21990383 0.031054761 1.3045001 38
0.22555715 0.033830002 1.3157501 38
0.22784667 0.043811906 1.3145001 38
0.22991239 0.0574781 1.312 38
0.23390573 0.074205711 1.3151251 38
0.21823491 -0.0018885718 1.322 38
0.2237623 -0.0050579053 1.3274001 38
0.22740477 0.0050538098 1.3265002 38
0.23105335 -0.0038085715 1.3330001 38
0.23591484 0.0034540137 1.3358572 38
0.24211431 0.0050971429 1.3380001 38
0.24642985 0.0034107938 1.3430002 38
0.22200859 0.013797143 1.317 38
0.22596064 0.013017777 1.3230001 38
0.23102985 0.014755557 1.3280001 38
0.22830731 0.023082539 1.322 38
0.22914667 0.033994287 1.322 38
0.23524575 0.024030477 1.3280001 38
0.24030477 0.026560001 1.3280001 38
0.2368183 0.013465524 1.3340001 38
0.24423812 0.015291429 1.3380002 38
0.24667348 0.013521361 1.3430002 38
0.24596085 0.023795648 1.335143 38
0.23507047 0.034120958 1.3270001 38
0.24227217 0.035132278 1.3280001 38
0.24790913 0.033081092 1.3358573 38
0.23078857 0.046408571 1.317 38
0.2351139 0.043638479 1.3244001 38
0.2343719 0.054036669 1.3195 38
0.24260435 0.044611603 1.3280001 38
0.24334021 0.053878862 1.3280001 38
0.23596936 0.064196497 1.3195 38
0.2452724 0.064477146 1.3275001 38
0.2449981 0.074508578 1.3260001 38
0.25422272 0.0044880956 1.3470004 38
0.25284117 -0.004625143 1.3490001 38
0.25790477 0 1.3540001 38
0.26274002 -0.0038828575 1.3590001 38
0.26209143 0.0077085723 1.3490001 38
0.26521406 0.0033220414 1.3565001 38
0.25509414 0.013830476 1.3446003 38
0.25230858 0.026760001 1.3380001 38
0.25678289 0.023833716 1.3454002 38
0.25230858 0.034405716 1.3380001 38
0.25708857 0.034534287 1.3430002 38
0.26506206 0.035011571 1.347286 38
0.26260531 0.01490324 1.3490001 38
0.26380444 0.024838731 1.3490001 38
0.26725715 0.013637553 1.3547145 38
0.26822096 0.023211431 1.3540001 38
0.27276656 0.014782313 1.3582858 38
0.27481109 0.025099866 1.3565001 38
0.25084859 0.044566669 1.3370001 38
0.25139847 0.0543961 1.3345001 38
0.25727132 0.044218507 1.3430002 38
0.25836763 0.057557143 1.3430001 38
0.25042287 0.074620955 1.3280001 38
0.2542254 0.064826667 1.3346667 38
0.26550713 0.044890244 1.3467503 38
0.2651425 0.055216901 1.3462002 38
0.2651425 0.065642677 1.3462002 38
0.23871544 0.075039245 1.322 38
0.2383797 0.083516829 1.322 38
0.24499813 0.084611431 1.326 38
0.25042287 0.082209527 1.3280001 38
0.25651506 0.075580195 1.3360002 38
0.11845614 0.11875545 1.1416668 39
0.1154936 0.1251355 1.1340001 39
0.1178963 0.13442412 1.1322223 39
0.11893105 0.16342324 1.123 39
0.11604096 0.17470033 1.1155001 39
0.11688857 0.14466143 1.12725 39
0.11726096 0.15399975 1.1251429 39
0.12694034 0.11262953 1.1556667 39
0.12339278 0.11573353 1.1486001 39
0.12957524 0.12079047 1.153 39
0.12117334 0.1352343 1.136 39
0.12553135 0.12491703 1.1461112 39
0.12606363 0.13463596 1.1450001 39
0.13131431 0.12693715 1.149 39
0.13204382 0.13532667 1.1490002 39
0.13348271 0.11459668 1.1663334 39
0.13002476 0.11790381 1.1570001 39
0.13222858 0.12341335 1.1570001 39
0.13553429 0.1355343 1.1570001 39
